# .PCD v0.7 - Point Cloud Data file format
VERSION 0.7
FIELDS x y z
SIZE 4 4 4
TYPE F F F
COUNT 1 1 1
WIDTH 1529
HEIGHT 1
VIEWPOINT 0 0 0 1 0 0 0
POINTS 1529
DATA ascii
-60.651459 69.424744 -32.903847
-48.572235 69.362221 -32.620178
55.693275 69.325027 -32.761585
-60.583378 69.632042 -32.958504
-48.580078 69.564758 -32.646458
55.669083 69.576614 -32.973133
0.43121621 70.396034 -32.543224
0.70322168 70.356895 -32.537621
1.9145708 70.159584 -32.514439
7.5644512 70.390816 -32.925041
63.137371 70.482124 -32.561188
63.331753 71.187279 -32.891449
-3.6628942 71.704025 -32.902767
-49.682751 72.197662 -32.893257
-4.1243577 72.103233 -32.840714
63.369904 72.202202 -32.752033
-5.60182 72.708588 -32.61837
-5.2565255 72.684303 -32.541168
63.167831 72.749359 -32.744263
-50.425591 73.378716 -32.654461
54.58532 73.197479 -32.55061
-50.299343 73.515656 -32.811832
-58.517448 74.811462 -32.917694
-58.290855 74.884987 -32.739235
-58.047832 75.238144 -32.898235
-56.116623 75.853302 -32.768311
-55.099537 75.92807 -32.733418
-55.090183 76.087509 -32.905128
-53.626514 76.323158 -32.769287
-53.352161 76.39225 -32.906097
61.13295 77.139343 -32.534264
53.401707 78.674675 -32.667252
60.190819 79.689026 -32.867546
58.022568 81.115387 -32.788376
51.6856 83.435448 -32.908138
51.67524 83.508057 -32.835243
56.264343 84.357727 -32.795849
51.595646 84.689857 -32.562046
56.144825 84.853043 -32.588768
52.715401 86.712036 -32.976788
48.744137 89.866348 -32.542751
49.023552 89.9328 -32.891403
1.1830683 51.976624 -32.174896
1.3333584 52.082142 -32.242764
1.7643095 52.343136 -32.128193
1.9117079 52.541206 -32.330299
-3.7744162 53.237762 -32.34053
-4.0490208 53.744514 -32.431629
3.9551358 54.042149 -32.472702
4.0661325 54.037914 -32.335384
-51.944061 54.774147 -32.034454
4.2983508 54.808949 -32.301235
-49.777031 55.264076 -32.220856
-49.444702 55.826786 -32.177387
-4.3092656 55.757015 -32.260292
-56.72583 56.357639 -32.027382
-6.2513027 56.365952 -32.093906
-5.2649541 56.243328 -32.265415
-4.8738074 56.240784 -32.325413
-57.781097 57.281181 -32.43626
-50.263947 57.383186 -32.333942
5.638792 57.377808 -32.053452
-57.94619 57.527977 -32.490669
-50.335518 57.507301 -32.288456
-50.756168 58.768551 -32.269508
7.6847153 58.618179 -32.260483
-59.149033 59.467606 -32.25087
-50.643364 59.186676 -32.349178
-50.363853 59.12537 -32.116074
-7.3166819 59.29348 -32.403099
-59.083611 59.557495 -32.373852
-7.8737068 59.834133 -32.320423
-59.549347 60.259766 -32.409637
-59.49868 60.202988 -32.494011
-49.124954 60.453674 -32.017933
8.7600756 60.111134 -32.403435
-49.134102 61.391853 -32.340767
-48.981281 61.032879 -32.007229
8.8336859 61.107773 -32.118557
-49.101166 61.519161 -32.326733
8.6760893 62.318298 -32.301277
-60.2962 62.963772 -32.390465
-8.5085602 62.850281 -32.319885
-8.4286652 62.943279 -32.381454
-60.240967 63.069885 -32.200577
-48.55603 63.431171 -32.40831
-48.370621 63.496906 -32.208965
-48.401695 63.553596 -32.255306
-7.2267933 63.886566 -32.104954
6.8485751 63.934345 -32.41053
-60.708038 64.301193 -32.290787
-60.665924 64.526886 -32.149311
-48.314835 64.968498 -32.46986
-48.218708 65.190437 -32.396729
-47.990387 65.984108 -32.44883
-47.957718 66.133156 -32.471909
-5.6664162 66.31208 -32.142849
-4.8115649 66.436035 -32.493427
5.072319 66.386459 -32.399784
-60.503021 66.958191 -32.297276
-60.485046 66.955688 -32.265526
-6.0876884 66.756401 -32.36375
-5.7176833 66.677673 -32.390678
-60.54517 67.088531 -32.405777
-60.46492 67.025742 -32.249962
58.273678 67.169968 -32.18623
58.573235 67.159821 -32.155388
6.158308 67.559647 -32.304924
6.7041492 67.989784 -32.134174
56.478706 67.978775 -32.329315
56.957367 67.596878 -32.153034
57.088783 67.510498 -32.06826
-47.940933 68.072433 -32.011955
6.8632751 68.336601 -32.185314
56.258583 68.219086 -32.365707
-48.295563 68.780014 -32.311954
-60.225773 69.473495 -32.230419
55.508305 69.313606 -32.361439
62.330521 69.092812 -32.071007
-60.159836 69.779045 -32.249332
-60.101135 70.080986 -32.35891
0.70075351 70.480598 -32.350574
1.8938978 70.238144 -32.40147
3.7870579 70.196648 -32.319817
63.128433 70.465363 -32.382011
-48.554996 70.894554 -32.119392
-48.372993 70.66571 -32.265545
-47.898918 70.662399 -32.120148
4.0460157 70.530159 -32.268242
63.147846 70.531967 -32.395176
-49.22525 71.156723 -32.401993
-8.0663357 71.494484 -32.054176
-7.9899926 71.342972 -32.073376
-2.9828014 71.473175 -32.260101
-1.0685072 71.056221 -32.099087
6.763433 71.446495 -32.46825
54.941086 71.073654 -32.082855
-49.831493 71.859505 -32.08955
-8.1292915 71.818382 -32.137665
-3.1244669 71.557236 -32.315796
5.1832886 71.561295 -32.099167
6.7783957 71.510544 -32.394676
7.0740128 71.637062 -32.181721
-59.58073 72.198479 -32.320023
-5.5264874 72.763802 -32.447788
-5.1558199 72.739243 -32.349312
-51.255116 73.431931 -32.140835
-50.729439 73.090981 -32.116203
-51.325848 73.520645 -32.177719
-58.405846 74.122787 -32.186592
-58.030312 74.863136 -32.464485
-55.922543 75.536514 -32.233932
53.270348 76.305275 -32.375301
53.264755 76.516647 -32.387737
53.308601 77.318031 -32.256287
61.260906 77.31633 -32.273994
60.958981 78.358475 -32.273163
52.646515 78.804703 -32.089256
52.630486 79.082893 -32.22226
59.264629 80.616997 -32.069042
57.672039 81.537628 -32.065125
51.456146 82.436073 -32.225807
51.595947 82.466049 -32.466976
51.590218 82.504883 -32.455269
51.372395 84.870361 -32.004032
51.550217 84.701508 -32.463936
51.387276 85.14003 -32.03487
49.398312 88.232628 -32.384655
50.895485 88.175972 -32.102615
48.698544 88.913605 -32.265709
50.966377 88.965172 -32.041164
51.007359 88.864578 -32.00848
48.646091 89.246376 -32.253296
48.682205 89.649155 -32.341278
48.819271 90.009087 -32.497654
49.021679 90.142517 -32.202194
49.728302 90.33429 -32.039261
-3.0731766 52.385487 -31.737925
1.9613316 52.49115 -31.959087
-3.2116921 52.568661 -31.857986
-3.8290758 53.249435 -31.980179
-52.133587 54.468044 -31.542757
4.2519007 54.32766 -31.52359
-51.902458 54.683422 -31.910801
-50.183353 54.561012 -31.560234
-4.7933979 55.629139 -31.6852
-57.205742 56.239967 -31.574026
-56.873093 56.259804 -31.845284
-6.2947979 56.32959 -31.810427
-49.632488 56.743961 -31.668762
4.2834463 56.572746 -31.582268
4.9731264 56.997166 -31.568821
-58.198132 57.15889 -31.637117
4.8315554 57.038593 -31.821251
5.8381376 57.431084 -31.944559
-58.678463 57.87067 -31.726994
-6.5034471 57.903568 -31.691292
6.3295588 57.565659 -31.693945
-58.679859 58.028809 -31.84812
-6.5424824 58.057343 -31.666019
7.1588645 58.403751 -31.764069
-50.267014 58.52393 -31.687799
7.535028 58.775116 -31.52388
-60.113815 60.373093 -31.597641
-59.927521 60.102806 -31.765982
-49.0331 60.455849 -31.870962
-48.994419 60.28891 -31.727922
-60.14959 60.555679 -31.557102
-48.923985 60.884216 -31.892939
8.8301144 61.156296 -31.816525
-48.017529 62.281815 -31.521624
-60.165054 62.849941 -31.680794
-8.5000858 62.904823 -31.949984
-8.4552574 62.950897 -31.991304
8.6367912 62.685371 -31.795391
-60.155624 63.002983 -31.751104
-60.312366 63.736511 -31.766031
-7.3889861 63.76326 -31.979332
6.7727828 64.265953 -31.604326
-47.472725 64.990417 -31.569229
-6.5912552 64.692383 -31.943045
-47.536407 65.057526 -31.662788
-6.6244221 65.611267 -31.603483
-6.35009 66.325623 -31.868584
-7.5525322 67.426819 -31.530798
-7.4237776 67.21698 -31.534231
6.5751209 67.048958 -31.541107
57.660027 67.129868 -31.529875
-60.220161 67.726471 -31.851721
-47.779491 67.786194 -31.889196
-7.6118059 67.785294 -31.788834
60.511562 67.754974 -31.661785
-47.835178 68.159531 -31.780609
7.2576237 68.264107 -31.74444
7.5758166 68.447083 -31.561087
-8.0127125 68.98175 -31.523338
-7.8909087 68.902092 -31.774124
7.4378738 68.611504 -31.703972
62.142826 68.951187 -31.869534
-47.608574 69.486359 -31.890278
-46.584499 69.478401 -31.589352
-46.462276 69.435234 -31.553213
-7.9303069 69.178741 -31.717272
62.265369 69.043243 -31.988998
-60.045486 69.720383 -31.708843
-47.485584 69.569496 -31.914349
-46.53614 69.832855 -31.875063
-46.467571 69.810371 -31.850107
-45.778648 69.67054 -31.625952
8.1180677 69.940636 -31.72789
-46.59428 70.252007 -31.882772
-46.457153 70.475166 -31.767084
-45.982857 70.08242 -31.824247
-48.104874 70.902122 -31.875143
-46.531422 70.507973 -31.782196
0.014482761 70.967087 -31.81731
-59.5522 71.051743 -31.540382
-8.0409126 71.22892 -31.792576
-7.9931211 71.203163 -31.856411
-2.200433 71.435883 -31.845419
-1.5958103 71.35817 -31.839861
-1.1114565 71.198753 -31.904276
-0.43474776 71.102676 -31.794783
0.38822025 71.065781 -31.563107
4.102303 71.188141 -31.605417
-49.833363 71.938454 -31.908575
-48.899822 71.861061 -31.556097
-8.1252708 71.559441 -31.971539
-2.1934135 71.559998 -31.714081
5.2858019 71.677612 -31.966803
5.620501 71.947693 -31.705925
7.2978897 71.763863 -31.956303
63.32782 71.603989 -31.682037
-2.9680309 72.035599 -31.505838
5.8620329 72.071289 -31.594536
6.621244 72.103447 -31.633842
-50.766586 72.873291 -31.803354
-7.3945861 72.880127 -31.68022
-5.4939656 72.952316 -31.752811
-4.5468473 72.801422 -31.544094
-51.708244 73.401802 -31.540592
-50.781998 73.014252 -31.956812
-58.161758 73.929787 -31.616655
-51.716724 73.68306 -31.938503
62.613098 73.81588 -31.866074
-58.140732 74.152267 -31.903149
-55.677551 75.13855 -31.540823
53.267456 75.558838 -31.958344
53.158356 76.622009 -31.50655
53.097462 77.316742 -31.535336
52.458992 78.691902 -31.864491
52.61026 78.612839 -31.931717
51.719425 79.842598 -31.653753
58.137131 81.343361 -31.641582
51.28244 81.964066 -31.785278
57.999088 81.637283 -31.53323
51.201832 82.330833 -31.632193
57.203152 82.869514 -31.590746
56.883713 83.278572 -31.640696
51.402412 85.058235 -31.99065
51.96249 85.38147 -31.598835
52.029499 85.451805 -31.592737
55.793797 85.382751 -31.539808
55.133034 85.967239 -31.850142
51.242809 88.407372 -31.754707
48.64307 88.998718 -31.794306
51.140228 88.704323 -31.854494
48.687302 89.171875 -31.806576
50.928715 89.230164 -31.92226
51.043846 89.257927 -31.746124
49.683304 90.344101 -31.965706
-1.6994098 51.128971 -31.074316
-3.8746324 52.264374 -31.054913
2.3483269 52.221069 -31.320705
-4.0146508 52.504032 -31.088284
4.2167187 53.948509 -31.02986
-53.714108 54.106552 -31.016708
-53.204113 54.160755 -31.262518
-52.811867 54.068867 -31.022713
-52.056114 54.417137 -31.411512
-56.140358 55.337852 -31.060083
-55.650551 55.279289 -31.260242
-55.416962 55.156563 -31.267309
-49.027702 55.258625 -31.400902
-5.7763176 55.406822 -31.185413
-4.7718945 55.271126 -31.372402
-56.749241 55.68605 -31.169758
-57.234951 56.143234 -31.422762
4.663662 56.471817 -31.013645
-49.53862 56.735756 -31.371964
-58.26009 57.183647 -31.431725
6.2125688 57.392944 -31.48451
-50.066914 57.894863 -31.230345
-50.054756 58.255177 -31.358002
-49.932434 58.073978 -31.073452
7.4033413 58.791515 -31.292721
7.6805072 58.892925 -31.334955
-60.114365 59.236229 -31.337551
-49.315109 59.273453 -31.436127
-48.877441 59.426781 -31.079994
7.9945812 59.029377 -31.312395
8.3928537 59.428341 -31.099243
-48.650902 59.700676 -31.04475
-60.397732 61.630005 -31.110689
8.849968 61.85215 -31.162281
-60.26511 62.445313 -31.284485
-47.856895 62.353638 -31.383114
-8.7918549 62.180668 -31.03558
-60.218117 62.731403 -31.39332
-47.385849 62.950195 -31.035812
-8.7579231 62.503929 -31.494804
-8.0242653 63.453773 -31.11618
8.2956409 63.407021 -31.332941
-7.8956013 63.595741 -31.113068
7.7425537 63.859276 -31.116508
-47.370701 65.086494 -31.431356
6.2512779 65.223305 -31.301411
-47.168995 65.955414 -31.209097
-7.4162812 65.619904 -31.098152
-60.188141 66.139595 -31.118334
-47.117977 66.228638 -31.201572
5.972578 66.031815 -31.272417
6.0994577 66.015732 -31.208075
-7.2303391 66.637695 -31.205135
-7.5647655 67.386467 -31.424089
56.495411 67.155022 -31.057432
56.593914 67.232117 -31.211231
57.478218 67.122086 -31.469147
57.690941 67.035355 -31.364147
-7.8319869 67.748848 -31.171293
60.737785 67.749809 -31.466114
-59.909161 68.163544 -31.219727
8.189352 68.469284 -31.060383
-8.1481895 68.734192 -31.112049
8.2526121 68.55452 -31.006226
-45.853493 69.358551 -31.404099
8.1846533 69.375977 -31.069019
8.183383 69.804878 -31.264364
54.737503 70.288101 -31.286629
-59.573776 70.632545 -31.237007
-59.466263 70.917374 -31.250786
-59.528908 71.065384 -31.485336
-59.469849 71.102417 -31.346638
-47.227188 71.171501 -31.157907
-46.242237 71.05014 -31.095215
-8.3140841 71.406693 -31.339437
0.42326236 71.275452 -31.278851
0.50869417 71.193779 -31.373123
3.7723336 71.074593 -31.303812
8.53339 71.13623 -31.370369
-59.299995 71.917633 -31.084801
-48.885471 71.973358 -31.430878
-1.6448588 71.836235 -31.212563
-1.4878802 71.740845 -31.256132
-0.50737453 71.552406 -31.223555
-0.33055931 71.553474 -31.154776
-48.749771 72.186005 -31.154266
-48.277035 72.077698 -31.04423
-3.037746 72.188583 -31.318218
-2.8713176 72.057449 -31.417078
4.9359837 72.087547 -31.108038
-7.2089658 72.972885 -31.41128
-4.4246254 72.803284 -31.409809
54.03772 72.797729 -31.101543
-58.745857 73.390106 -31.253061
-7.3031707 73.031052 -31.068882
-5.8062205 73.106407 -31.049078
-5.1885738 73.026764 -31.153107
53.670563 73.475716 -31.111332
-58.234417 73.778603 -31.377584
62.289944 73.992088 -31.017302
-57.575798 74.071609 -31.355247
-57.298008 74.199196 -31.247673
-53.397026 74.268791 -31.227131
-52.956192 74.118439 -31.248829
53.294456 74.449509 -31.149967
62.177822 74.195244 -31.233818
-54.305336 74.747414 -31.377575
53.268017 74.553825 -31.160105
61.918858 74.578949 -31.341888
61.674133 75.271469 -31.344414
53.146481 75.927582 -31.374439
61.754456 75.803192 -31.467449
53.117878 76.805183 -31.371862
52.981197 77.236717 -31.304178
53.067108 77.195709 -31.4074
51.457447 79.927452 -31.354919
51.259159 80.046173 -31.057793
51.23008 82.413651 -31.265984
51.234383 82.729774 -31.155132
57.477177 82.90451 -31.270014
57.642792 82.663498 -31.334671
56.850433 83.555992 -31.425756
51.53463 84.616623 -31.364014
56.072166 84.989227 -31.060484
52.150078 85.290749 -31.244122
53.810684 85.859985 -31.113911
55.530052 85.570763 -31.362633
50.449726 86.375755 -31.000172
51.431473 86.766792 -31.101431
49.097401 87.565285 -31.105993
48.7365 88.939041 -31.401024
48.794266 89.154602 -31.38125
51.367451 89.21595 -31.093712
-19.228872 94.923309 -31.280111
-18.994635 94.982452 -31.280836
-18.088501 94.882965 -31.023022
-17.855072 94.654594 -31.028364
-20.816381 95.21212 -31.159134
-19.21949 95.137207 -31.264595
-19.647163 95.693268 -31.157825
-19.466797 95.595352 -31.154261
-1.6649405 51.134285 -30.915535
1.3960879 51.342796 -30.694525
1.5618191 51.383484 -30.618271
-4.0797615 52.044312 -30.614414
-3.9778693 52.253956 -30.982376
-4.3553443 52.708466 -30.863358
-4.4942412 53.172565 -30.895849
3.9101551 53.223789 -30.695936
-53.268856 53.990559 -30.883722
-50.359932 53.889671 -30.631159
-49.744125 53.889538 -30.609961
-49.444756 53.89484 -30.537033
-4.6351142 53.758598 -30.868736
-4.4616718 53.712574 -30.989168
-53.515282 54.037811 -30.92215
-53.211235 54.03722 -30.99157
-52.706738 54.055405 -30.929804
-52.478371 54.075752 -30.866896
-51.097431 54.086788 -30.765671
-50.956249 54.107243 -30.842705
-48.55146 54.821434 -30.790287
-48.445137 54.956097 -30.58457
-5.7686725 54.893803 -30.594423
-56.676273 55.274822 -30.647345
-56.213634 55.168396 -30.828831
-48.471138 55.014767 -30.667709
-5.757009 55.189384 -30.967911
-57.481129 55.902092 -30.661148
4.2914233 55.92165 -30.65213
4.6612158 56.442528 -30.937759
-58.583168 57.158028 -30.587448
-49.639236 57.887573 -30.683863
-59.618279 58.095245 -30.566341
-49.583229 58.011269 -30.688963
-59.900013 58.532131 -30.774197
-7.2719665 59.325146 -30.693359
8.2735748 59.402451 -30.908478
-48.545563 59.58543 -30.858665
-48.375496 59.678642 -30.783449
-7.5725522 60.476578 -30.82349
-7.4761276 60.320084 -30.794544
-7.4026613 60.519699 -30.578985
-47.679325 61.402027 -30.753181
-8.0153017 61.027878 -30.727669
-61.004818 62.163971 -30.566837
-60.759598 62.907715 -30.63225
-47.300526 62.875641 -30.924038
-8.6961517 62.917122 -30.572906
8.7182636 62.778866 -30.852989
-8.3020191 63.296539 -30.903212
-46.855824 63.503304 -30.55266
7.7323933 63.947239 -30.934055
7.224565 64.816994 -30.737417
-46.846222 65.371101 -30.687384
7.198401 65.214821 -30.605438
-46.901897 65.595276 -30.78763
6.9628172 65.740616 -30.621887
7.1498413 65.536354 -30.528027
-60.027607 66.929199 -30.651789
-59.934113 67.331116 -30.622168
-47.167831 67.339912 -30.930264
-7.9691348 67.427483 -30.665159
-47.161972 67.528931 -30.858799
8.285944 68.477486 -30.956257
61.481888 68.025635 -30.771122
-46.717922 68.730377 -30.550991
8.3599472 68.636063 -30.903248
-45.136757 69.36319 -30.900909
-44.860165 69.470627 -30.828928
8.2937679 69.464645 -30.908192
8.4837046 70.203094 -30.705847
8.5419846 70.283745 -30.613815
-59.429028 70.628906 -30.952517
8.6727228 70.775017 -30.736677
54.373299 70.911392 -30.665314
-47.215057 71.430222 -30.948576
-46.240486 71.10627 -30.974888
2.9330525 71.389771 -30.740204
3.1271658 71.354362 -30.74716
-59.224522 71.914902 -30.912823
-47.217598 71.605774 -30.86414
-1.5022235 71.962502 -30.968788
0.059678867 71.92878 -30.612068
-59.18298 72.196411 -30.886547
-48.804115 72.478149 -30.603075
-48.143608 72.195511 -30.869873
-47.774002 72.181946 -30.724167
-8.5985966 72.37262 -30.558016
-0.83710963 72.179329 -30.583773
0.045271873 72.013977 -30.545914
4.8396497 72.291512 -30.660769
5.3294511 72.434013 -30.695374
5.5756946 72.471024 -30.731554
7.7285371 72.441742 -30.51926
-58.695835 72.928726 -30.587234
-50.201412 72.765854 -30.964268
-49.725227 72.584984 -30.912004
-48.993477 72.529526 -30.62142
-8.0764418 72.841942 -30.614872
-3.1030684 72.745895 -30.764051
-2.9477448 72.897331 -30.644148
6.402317 72.641037 -30.531883
7.2616587 72.584702 -30.505337
53.941071 72.825829 -30.967461
62.977852 72.963676 -30.692501
63.025223 72.968674 -30.535561
-58.815254 73.166107 -30.942829
-58.30558 73.345482 -30.657753
-51.118519 73.253525 -30.774195
-7.2848768 73.100998 -30.808388
-6.6442451 73.154312 -30.846701
-6.0865598 73.145927 -30.943577
-5.8363729 73.124573 -30.963238
-5.2417364 73.092949 -30.925234
-4.9514608 73.068275 -30.901241
-4.1927176 73.12664 -30.612022
-2.6594052 73.402817 -30.652973
53.656143 73.342377 -30.945198
62.932854 73.103577 -30.644726
-58.25695 73.527039 -30.867247
-57.678776 73.618828 -30.719963
-56.893211 73.952805 -30.662678
-53.661091 73.857597 -30.503508
-1.6165105 73.869423 -30.617569
-1.410785 73.912689 -30.598169
53.523087 73.529884 -30.85342
-56.623428 74.319901 -30.821295
-56.367123 74.240562 -30.637596
53.175331 74.435005 -30.728201
53.093082 74.676865 -30.641747
53.032806 75.338249 -30.625748
61.921097 75.184624 -30.585922
53.007378 76.372238 -30.679638
62.041828 76.054115 -30.512766
52.368942 77.269318 -30.58786
52.513023 77.279877 -30.732315
60.46283 79.288849 -30.548939
60.648689 79.127785 -30.788425
51.218735 79.988075 -30.992359
59.960693 79.740417 -30.657352
51.190109 80.086273 -30.937305
58.788353 80.428337 -30.645325
58.130108 81.617561 -30.737202
51.318623 82.773575 -30.89179
56.288807 84.713783 -30.79928
52.188122 85.136536 -30.963736
55.430138 85.390747 -30.587521
55.695801 85.272797 -30.692417
50.277882 86.3825 -30.956299
49.283607 86.926788 -30.653637
51.524937 86.643379 -30.960793
49.268715 87.009369 -30.738686
51.897099 87.265808 -30.665743
-12.366959 88.209938 -30.669622
-12.462544 88.836945 -30.524328
-14.15681 89.2136 -30.655573
-13.986895 89.112846 -30.722851
-14.643126 89.85022 -30.726223
-14.424527 89.952576 -30.792807
50.981216 89.75074 -30.730808
-15.264579 90.413666 -30.554478
-14.785126 90.384628 -30.85667
-14.365623 90.057312 -30.803513
-15.467007 90.912415 -30.811062
-14.643747 90.569199 -30.858215
-14.830987 91.367966 -30.802954
-14.289418 91.32151 -30.664196
-16.448408 91.842232 -30.576256
-15.793947 91.881363 -30.955938
-15.478718 91.925362 -30.880129
-16.63909 92.0075 -30.503044
-14.514795 92.276535 -30.593124
-14.390885 92.258667 -30.560112
-18.085878 93.395454 -30.66935
-17.949913 93.296036 -30.773247
-20.652008 94.907471 -30.786694
-20.49625 94.804771 -30.649704
-21.896904 95.471855 -30.786366
-18.037977 95.226059 -30.868521
-17.839777 95.073891 -30.867252
-22.2005 95.74926 -30.591066
-21.922968 95.757034 -30.833385
-19.477957 96.336533 -30.590939
-1.5549918 51.337952 -30.372925
-1.4143734 51.34444 -30.265223
-0.93091547 51.283588 -30.319782
-3.2260532 51.942844 -30.073519
3.1670921 51.972145 -30.146992
-4.1408401 52.02739 -30.486509
3.3127971 52.066303 -30.174868
-4.9500723 52.843277 -30.030342
4.1475325 53.262123 -30.458115
-50.515953 53.814003 -30.483002
-49.727356 53.602459 -30.163324
-55.817886 54.353191 -30.074507
-55.265903 54.398472 -30.365086
-54.915318 54.28252 -30.363844
-55.841812 54.575012 -30.379116
-5.9087849 54.890541 -30.273933
4.6725903 54.75351 -30.006618
-6.0756631 55.095634 -30.061119
4.4664297 55.949589 -30.486677
4.6890421 55.819427 -30.202154
-6.575479 56.910629 -30.095156
-6.4641523 56.893234 -30.314339
5.9362559 56.822117 -30.106951
-58.606155 57.118484 -30.497568
-49.611866 57.313557 -30.471636
-6.6079717 57.13678 -30.112244
6.1626129 57.311825 -30.132706
-49.543507 57.511421 -30.45145
6.1638803 57.563286 -30.016476
-7.240139 59.361904 -30.455729
-60.823868 60.871349 -30.232939
-7.3773117 60.833416 -30.258087
8.665823 60.781605 -30.08853
-46.825108 62.215496 -30.153158
-60.9893 62.820873 -30.433165
-8.8061142 62.920303 -30.239639
-46.815155 63.361828 -30.472221
-8.7855339 63.25959 -30.184284
-46.598103 63.947353 -30.178341
-8.6982536 63.58493 -30.166489
-46.520752 64.050232 -30.046179
7.8834381 64.069061 -30.218657
-46.596287 65.237991 -30.368683
-60.603992 65.722221 -30.090078
-46.516834 65.816544 -30.385958
-46.372292 65.706131 -30.164387
7.1351466 65.753448 -30.474442
56.321411 66.394493 -30.04261
56.595165 66.403679 -30.023586
58.073135 66.337593 -30.228016
58.907776 66.121704 -30.016832
8.0743895 66.948387 -30.145803
-8.1591988 67.433716 -30.413502
8.1935339 67.16378 -30.23377
60.448093 67.207565 -30.045822
60.706604 67.428558 -30.110186
-46.856201 67.740028 -30.325781
-8.3047085 67.844803 -30.285545
8.4477272 67.65004 -30.302984
54.822159 67.921204 -30.237637
61.174973 67.768845 -30.151184
-46.716671 68.197685 -30.151247
54.823402 68.11113 -30.36655
-59.576824 68.904213 -30.118515
-46.637558 68.65432 -30.411215
-45.756371 68.945137 -30.293514
-59.543388 69.053505 -30.089371
-44.914581 69.009117 -30.197989
8.6368408 70.442062 -30.206764
63.413219 70.236763 -30.245626
63.481087 70.919952 -30.275826
-58.781219 71.481064 -30.114634
8.7954922 71.192917 -30.324818
54.062622 71.251953 -30.275364
63.346809 71.746155 -30.230682
1.3806289 72.114624 -30.294853
1.5335423 72.152145 -30.244478
2.276819 72.452057 -30.060896
4.5160275 72.251167 -30.445843
7.9208059 72.441589 -30.274916
-48.468796 72.666092 -30.034342
-0.5313918 72.507782 -30.423561
-0.46148229 72.766365 -30.417776
0.61325645 72.938469 -30.277685
2.299726 72.543152 -30.038935
5.4985647 72.57151 -30.493719
6.4202394 72.741837 -30.289087
6.6161332 72.747078 -30.263021
7.3888979 72.583382 -30.433887
7.7926168 72.529053 -30.176075
63.139034 72.859894 -30.349461
-6.8014708 73.321289 -30.185257
0.81830549 73.179489 -30.336126
3.1861801 73.468216 -30.052059
62.96854 73.13533 -30.48843
-56.074242 73.91571 -30.262989
-55.927715 73.788651 -30.104702
-53.048462 73.705849 -30.330839
1.318542 73.752884 -30.437902
1.5073483 73.734955 -30.428423
-0.2274355 74.427979 -30.375919
2.2826622 74.334229 -30.275656
-4.1565628 74.784058 -30.404634
-0.28266412 74.592484 -30.299198
2.3595192 74.586792 -30.188646
2.976665 74.795227 -30.030846
3.2850168 74.55455 -30.049669
-3.7504902 75.48114 -30.084997
-1.2082117 75.135483 -30.099762
-0.27310783 75.072662 -30.013899
-3.6977611 75.552246 -30.021626
53.018059 75.636116 -30.43177
52.752094 76.404213 -30.32896
52.216064 76.924149 -30.096449
51.644054 77.95929 -30.350283
51.600826 78.008278 -30.320435
51.167263 78.908295 -30.184126
59.407337 80.141319 -30.286783
51.059433 80.926414 -30.128069
51.085468 81.028946 -30.165255
51.338188 82.381821 -30.303656
51.360649 82.577225 -30.247904
57.752728 83.24453 -30.327948
51.47348 83.519211 -30.104002
52.245621 84.853378 -30.089077
53.192287 85.341949 -30.427753
55.602306 85.256638 -30.478001
51.984756 85.946083 -30.180557
52.029945 85.710739 -30.067488
-11.390194 86.206604 -30.177071
-11.645894 86.617188 -30.401258
-11.437367 86.579559 -30.460361
52.156464 86.650375 -30.139557
-12.751102 87.43219 -30.256899
-11.136361 87.403885 -30.340258
-10.843031 87.312645 -30.146095
52.179661 87.120987 -30.282349
-13.291891 87.984726 -30.365677
-12.886401 87.553284 -30.222864
-10.608282 88.236359 -30.011021
-12.060379 89.389267 -30.334774
-11.877634 89.341202 -30.304945
-10.772516 89.008194 -30.042797
50.658367 89.746811 -30.274693
51.09507 89.605659 -30.445137
-15.300636 90.453323 -30.445011
-12.918741 90.352448 -30.466549
-12.338877 90.264359 -30.321255
-12.928881 90.565285 -30.455822
-12.489524 90.508247 -30.331768
-16.051847 91.494019 -30.048359
-16.547911 91.963959 -30.199919
-16.393333 91.79071 -30.292292
-13.627067 91.877579 -30.395939
-13.461075 91.66626 -30.402683
-17.052328 92.485443 -30.150152
-16.769627 92.114067 -30.432104
-17.147442 92.614609 -30.076679
-14.182279 92.805397 -30.318005
-18.006893 93.313248 -30.338097
-17.841148 93.172363 -30.29377
-14.533985 93.355171 -30.198135
-14.436172 93.368713 -30.139406
-18.528198 93.680328 -30.168678
-18.402584 93.598595 -30.066696
-15.218274 93.94606 -30.269051
-14.659027 93.792297 -30.01593
-15.319452 94.039642 -30.276163
-14.986099 94.126328 -30.018505
-16.260647 94.730309 -30.428797
-16.568449 95.449966 -30.1674
-16.450487 95.447769 -30.104233
-22.505764 95.85701 -30.150249
-22.421055 95.681282 -30.32131
-16.76469 95.682121 -30.103872
-19.51881 96.428551 -30.499226
-20.156017 96.722321 -30.098497
-19.995327 96.741539 -30.044537
0.52512097 51.481365 -29.850487
0.66232276 51.508106 -29.814056
1.6591384 51.632736 -29.772753
2.3352108 51.754749 -29.746521
2.6858125 51.815681 -29.811628
3.1630158 51.95768 -29.997303
-3.5242431 52.093418 -29.991728
3.6173897 52.383789 -29.719854
-3.7422237 52.555168 -29.576529
-51.82354 53.314602 -29.596521
-49.569214 53.392925 -29.664288
4.3295078 53.060226 -29.572712
-49.587521 53.531513 -29.996979
-55.336517 54.096699 -29.730446
-5.684772 54.114044 -29.562654
-47.895576 54.741379 -29.520487
4.7385683 54.717232 -29.927235
5.1374145 55.435699 -29.658754
-6.4735699 55.939392 -29.59234
-58.337837 56.100086 -29.561344
-48.82552 56.441113 -29.79026
-6.4546499 56.002209 -29.79763
-6.8302956 56.911201 -29.594316
-6.8083286 57.283928 -29.851494
-7.0495968 57.626034 -29.636385
-6.9261827 57.685238 -29.913586
-7.2068324 58.253658 -29.731768
-7.3863001 58.898155 -29.716482
5.9878964 58.613686 -29.947868
6.0985761 58.739155 -29.855865
-47.622849 59.138184 -29.542604
-47.560204 59.599869 -29.80484
7.3724699 59.817123 -29.730198
-7.3974833 60.36927 -29.748926
-61.048149 60.650131 -29.557251
8.6218624 60.778748 -29.874065
-7.4604235 61.232368 -29.629782
8.6087999 61.029675 -29.623899
8.7276344 61.811058 -29.567516
-46.625126 62.292885 -29.936174
-46.348076 62.329666 -29.54126
-46.376324 62.550575 -29.658499
-46.335171 63.306488 -29.723078
-9.0438728 63.304115 -29.843107
8.5577087 63.153931 -29.648491
-61.364525 63.896275 -29.665005
-46.500336 63.849045 -29.996948
-46.449543 63.833061 -29.904915
-9.0774403 63.537243 -29.82526
-61.275635 64.138474 -29.826519
-46.191895 64.042084 -29.549768
7.8724008 64.681129 -29.889784
8.0085554 64.535217 -29.642021
-8.8078175 65.415627 -29.761021
-8.7048912 65.784378 -29.823868
58.689316 65.837334 -29.663734
59.149414 65.92038 -29.656622
-46.110531 66.135849 -29.730759
7.8378763 66.32177 -29.789759
54.815865 66.410492 -29.529278
56.298767 66.220978 -29.816021
56.547668 66.320465 -29.91914
57.466728 66.077698 -29.586735
57.65163 66.043198 -29.640076
59.110344 66.030563 -29.84318
-60.58353 66.788902 -29.667942
-60.357395 66.785004 -29.886276
-46.132027 66.876114 -29.553314
-8.7622347 66.619408 -29.825319
7.8848057 66.562149 -29.949148
54.778625 66.53508 -29.561838
60.270599 66.896339 -29.768232
-60.323009 67.147339 -29.706112
-46.177738 67.024231 -29.556023
8.4048805 67.264679 -29.757784
60.411255 67.059731 -29.726152
-46.643421 67.97731 -29.998558
-46.376823 67.597786 -29.592432
-9.051178 67.755524 -29.583313
-8.6522045 67.971992 -29.857712
-8.7665005 68.259186 -29.737637
61.856323 68.335228 -29.879789
-46.141716 68.616501 -29.75174
-8.6693077 68.872032 -29.783651
62.031765 68.517998 -29.839796
-59.531422 69.344414 -29.714439
-44.115097 69.173309 -29.787025
-43.954853 69.196724 -29.567986
-8.6624289 69.103951 -29.777983
62.880997 69.432983 -29.868719
-59.393906 69.632538 -29.809877
8.6771803 70.380814 -29.803303
63.362816 70.122215 -29.923029
-8.7013683 70.836838 -29.551754
8.7834377 70.778046 -29.758154
63.356636 70.744728 -29.506498
-58.693592 71.460625 -29.937172
-8.8119392 71.153183 -29.557577
53.620113 71.329231 -29.639109
-58.590576 71.62114 -29.842628
-58.341846 71.914299 -29.600185
-9.0773869 71.87719 -29.653006
-8.9059639 71.656731 -29.827541
53.368439 71.996323 -29.54281
-58.252892 72.210327 -29.665068
-9.1152306 72.044014 -29.590988
53.280849 72.194489 -29.507103
4.3672156 72.68219 -29.690247
7.8309526 72.635567 -29.805023
8.0488367 72.545692 -29.730921
-48.923004 73.06781 -29.74984
3.8429422 73.351318 -29.733917
4.1741672 73.497299 -29.628494
-55.151382 73.699966 -29.816496
-52.601173 73.733978 -29.947285
-52.467697 73.793427 -29.816814
-50.676083 73.767914 -29.990879
-50.343674 73.783409 -29.823711
-49.839371 73.724442 -29.549603
4.0374503 73.724197 -29.744221
52.885017 73.792068 -29.528458
-5.8590384 74.292984 -29.714977
62.244423 74.624908 -29.847652
-6.4374619 75.445793 -29.558489
-0.82745844 75.379333 -29.853481
0.94238186 75.11731 -29.912134
1.3125951 75.185036 -29.882458
1.5456671 75.328926 -29.788883
-6.2684608 75.669022 -29.538425
52.749214 75.612946 -29.700619
52.351215 76.270439 -29.613722
52.59639 76.227356 -29.933081
52.172096 76.577324 -29.672186
51.683342 77.451378 -29.894348
51.015644 79.294121 -29.875183
60.358498 79.24202 -29.836426
59.702354 79.996864 -29.980852
58.950256 80.460083 -29.55961
59.225613 80.261627 -29.685726
58.696571 80.816826 -29.557245
58.489132 81.213478 -29.822226
58.275505 81.910828 -29.760201
52.431049 84.912872 -29.992451
50.097588 85.21582 -29.554878
53.626999 85.181793 -29.510815
54.907581 85.245934 -29.666492
55.824417 85.015327 -29.715279
52.488064 86.496117 -29.621344
52.413765 86.649323 -29.779606
-12.640654 87.346306 -29.832241
-10.08004 87.054909 -29.613125
52.563572 87.36084 -29.649729
-10.255235 87.861412 -29.792622
48.846573 87.610382 -29.823503
-10.542211 88.408798 -29.985716
-10.400766 88.286369 -29.891899
49.241093 88.99411 -29.88983
-14.030777 89.147102 -29.768333
-13.995897 89.029678 -29.849022
49.389111 89.050438 -29.727907
49.745399 89.362328 -29.702213
49.853455 89.544052 -29.881622
50.283928 89.604546 -29.834145
-15.159725 90.411842 -29.927778
-15.275258 90.685318 -29.784824
-11.728504 91.344986 -29.579422
-16.349491 91.853508 -29.954441
-16.841238 92.425652 -29.602896
-17.053679 92.595154 -29.706566
-14.528654 93.835449 -29.89493
-14.433856 93.789101 -29.859308
-20.633163 94.465073 -29.691486
-20.331808 94.444336 -29.832191
-15.035982 94.363297 -29.900349
-14.820072 94.130043 -29.902063
-21.064411 94.561127 -29.609268
-20.598684 94.559738 -29.884159
-20.406029 94.547211 -29.987902
-22.388824 96.00441 -29.505587
-17.259932 96.259743 -29.799744
-16.90591 96.118439 -29.744959
-20.783966 96.903946 -29.539913
-20.136335 96.822914 -29.85141
-18.863371 96.720528 -29.853683
0.90488684 51.781799 -29.055855
2.3780048 51.998829 -29.337214
2.3623402 52.049419 -29.256184
-4.2344074 52.915844 -29.143526
-3.9294584 52.72213 -29.245035
3.4002907 52.592941 -29.120619
3.7375212 52.643654 -29.340065
-51.824966 53.226646 -29.470322
-50.880859 53.13438 -29.163397
-49.499935 53.321636 -29.460573
-4.5845428 53.196663 -29.0625
4.3288865 53.192509 -29.364218
-55.345291 53.986832 -29.36554
-48.03344 53.873741 -29.166145
-56.549049 54.271454 -29.196384
-47.915413 54.186279 -29.391802
-5.6662331 54.342957 -29.219275
-57.632385 54.816711 -29.051056
-47.834908 54.844257 -29.238693
-58.044266 55.349762 -29.18017
-57.976391 55.411896 -29.417664
-47.926914 55.06461 -29.320971
5.4271483 55.145004 -29.045191
-58.314602 55.994064 -29.495033
-48.218964 55.789181 -29.05265
-58.359283 56.030277 -29.472549
-6.7257967 56.458267 -29.262579
-59.609558 56.914993 -29.091551
-6.7450585 56.503429 -29.323156
-48.806103 57.186352 -29.260506
6.3312593 57.795441 -29.060347
-47.534969 59.119579 -29.440443
-47.370274 59.086166 -29.251175
-7.7643299 59.333282 -29.041546
-46.940109 59.56929 -29.177555
6.897892 59.821835 -29.305681
7.0480318 59.852005 -29.439999
-61.236622 60.570789 -29.228888
7.8427944 60.813141 -29.196548
8.034586 60.809349 -29.261368
8.5310478 61.38221 -29.252775
-8.1457624 61.912178 -29.065426
8.6310577 61.674011 -29.250847
-61.666214 62.180481 -29.091118
-46.296043 62.208546 -29.419109
8.727663 62.173378 -29.253307
-9.3334789 62.677666 -29.289095
-9.6021471 63.939171 -29.397768
8.4475565 63.766254 -29.008825
-45.89645 64.433823 -29.191151
-10.069656 64.373611 -29.057886
-9.8149033 64.060638 -29.2388
-45.812992 64.696846 -29.077997
-61.534927 65.473671 -29.148621
-61.361439 65.46981 -29.418089
-10.03976 65.323364 -29.018812
-61.383774 65.609894 -29.320229
-9.669611 65.974854 -29.12257
55.084354 65.716774 -29.035639
56.802559 65.856056 -29.036461
58.609394 65.517944 -29.053667
-61.246773 66.417419 -29.119511
-46.001877 66.409508 -29.489922
-45.982067 66.491188 -29.429745
-9.5674229 66.164261 -29.140324
8.0525274 66.103485 -29.350346
-61.142395 66.7211 -29.062595
-45.841457 66.74131 -29.040052
8.2802162 66.771049 -29.11525
54.219658 66.91832 -29.000563
-60.967903 67.073578 -29.029093
-46.083954 67.099907 -29.343601
8.5674753 67.470833 -29.214899
54.245899 67.064812 -29.128952
-9.08599 68.397209 -29.4778
54.154175 68.216431 -29.481915
-60.014984 68.780785 -29.230785
-59.98542 68.990166 -29.160694
-45.502251 68.629951 -29.389795
-45.323891 68.590103 -29.170883
8.8897285 68.608566 -29.318419
53.824677 68.979156 -29.19186
-59.855518 69.090515 -29.294956
-43.79504 69.057045 -29.069416
8.8821106 69.078819 -29.214039
53.87952 69.166435 -29.339973
62.660889 69.236923 -29.145817
-59.572979 69.688278 -29.238892
-59.455441 69.709641 -29.406857
8.7276087 69.940407 -29.299868
53.895943 69.576668 -29.478188
-8.871604 70.221275 -29.326767
8.7071562 70.367104 -29.309044
-9.0131168 70.726822 -29.075174
53.463329 70.573486 -29.10297
63.316788 70.736946 -29.384703
-8.8980837 71.170219 -29.390509
53.280151 71.186256 -29.023294
63.273453 71.098831 -29.10866
53.341938 71.961502 -29.479677
63.305573 71.68454 -29.105211
-9.2989273 72.30452 -29.117661
8.5680008 72.238541 -29.455837
53.268673 72.106445 -29.438314
-47.626495 72.871887 -29.114773
-47.048504 72.691841 -29.450415
-46.949875 72.722115 -29.243696
-8.9193401 72.807571 -29.3181
8.191391 72.670044 -29.169544
-8.6900396 73.134872 -29.143698
-7.7120619 73.43457 -29.443333
5.9883552 73.154823 -29.137432
6.048851 73.182632 -29.067028
63.092522 73.169113 -29.130957
-54.356796 73.862762 -29.422844
-50.61467 73.976288 -29.154373
-49.78133 73.733803 -29.346827
-7.8292208 73.606865 -29.06562
52.839783 73.703377 -29.391279
62.537834 73.999138 -29.096331
62.413834 74.4608 -29.388569
62.538734 74.004532 -29.010033
5.5839458 74.725685 -29.005945
62.486893 74.688507 -29.273588
-7.3888054 75.302963 -29.143246
52.515587 75.4226 -29.213856
0.54257154 75.931114 -29.104015
2.1483746 75.928711 -29.256317
2.956229 75.780647 -29.145048
52.253918 75.776489 -29.111494
-6.0402036 76.400192 -29.102947
-5.906805 76.347603 -29.174751
-5.1453681 76.316475 -29.353823
-3.8536031 76.433502 -29.176743
1.1018038 76.135696 -29.045509
1.8205075 76.168106 -29.097279
2.2179887 76.063698 -29.113472
52.183857 76.247261 -29.374302
51.33342 77.433823 -29.103098
61.716198 77.134056 -29.448204
51.265015 77.701408 -29.212616
61.176506 77.968918 -29.041698
60.845287 78.477478 -29.328865
59.391045 80.058464 -29.242195
50.956947 80.756348 -29.022383
58.804764 80.747559 -29.331356
50.843044 81.664726 -29.02808
50.883183 82.15889 -29.022249
11.185382 83.886223 -29.23683
11.344196 84.107178 -29.288204
-11.11757 84.956779 -29.052982
-10.622127 84.844612 -29.351725
-10.441804 84.787697 -29.36034
49.961628 85.122238 -29.263126
50.021358 85.18605 -29.421022
53.794918 85.202484 -29.304325
54.004509 85.227699 -29.029642
12.168485 85.857925 -29.378916
52.661942 85.849426 -29.353172
-9.5612812 86.243881 -29.237995
-9.3955097 86.193863 -29.096478
11.74226 86.329788 -29.05106
12.439489 86.377594 -29.37961
12.684481 86.30098 -29.233831
49.262871 86.24041 -29.489964
52.729206 86.246773 -29.243685
13.059349 86.602379 -29.097361
52.611801 86.506004 -29.451927
13.259593 87.063171 -29.156403
12.548499 87.670509 -29.042658
13.265235 87.841972 -29.313141
13.343847 88.030869 -29.354975
52.24913 88.380661 -29.425594
-13.449595 88.746033 -29.21435
-9.5885353 88.897751 -29.035629
13.354577 88.788696 -29.140709
13.51534 88.672325 -29.288029
51.450455 88.960861 -29.074743
51.73772 88.826363 -29.183222
-9.9012337 89.061638 -29.330364
13.599983 89.20607 -29.102673
-10.576869 89.989647 -29.467133
-10.456701 89.981331 -29.355673
13.936627 89.782616 -29.01899
14.289798 89.848885 -29.196947
-10.679362 90.319107 -29.320499
-10.485082 90.177185 -29.233673
14.359745 90.070129 -29.126713
15.343613 90.262543 -29.171745
-10.771957 90.735756 -29.089718
15.717813 90.646851 -29.144442
15.980169 91.181824 -29.070652
16.087807 91.23317 -29.014431
-15.896356 91.563507 -29.285383
-11.67311 91.941101 -29.067619
16.019203 91.953262 -29.014322
-16.723114 92.337502 -29.359236
-12.191631 92.258156 -29.30924
15.979349 92.035019 -29.010099
16.084085 92.181885 -29.018574
-12.256653 92.650772 -29.065655
-13.449813 93.414032 -29.402428
17.348568 93.213676 -29.020664
-13.687291 93.636078 -29.410532
-14.376388 94.83152 -29.036001
-22.555485 95.540001 -29.253374
-22.419212 95.776649 -29.210892
-22.178082 96.12001 -29.234127
-21.863459 96.365555 -29.071053
-21.568134 96.623604 -29.114902
-20.71019 96.950516 -29.390884
-18.81418 96.937393 -29.216717
-17.911072 96.838776 -29.083176
2.4928975 52.443455 -28.777258
-4.1437716 52.953804 -28.871609
-54.070679 53.378006 -28.597679
-53.978714 53.324123 -28.555496
-52.998749 53.035385 -28.503567
-4.7120776 53.380833 -28.852253
-54.880482 53.572453 -28.606401
-5.3192306 54.305374 -28.640528
-5.7555609 54.896591 -28.788754
-57.978046 55.04763 -28.523556
-47.820976 55.118252 -28.747559
5.4322348 55.104671 -28.97295
5.5783982 55.312225 -28.793013
-58.903534 55.702671 -28.518412
-48.214012 55.849201 -28.884745
-59.717426 56.874775 -28.92717
-6.9792728 56.992985 -28.865887
-7.1084023 57.30254 -28.820721
6.4774265 57.414734 -28.703918
6.5317116 57.530937 -28.642021
-47.100422 58.243641 -28.751566
-46.920837 58.380798 -28.672768
-7.8340669 59.266544 -28.825974
6.6961527 59.468491 -28.916111
-8.0002193 59.879177 -28.776184
-7.9327712 59.785786 -28.854574
6.831614 59.907501 -28.698172
-8.0049534 60.21862 -28.793497
-7.9983644 60.000839 -28.800827
6.8216553 60.085007 -28.790359
-61.726601 60.548393 -28.510805
-8.0651979 60.581146 -28.717426
-7.9962149 60.663082 -28.79598
7.2584677 60.930832 -28.579838
7.926147 61.427666 -28.672543
-61.87117 61.994026 -28.525282
-7.9879756 61.677311 -28.86145
7.9236159 61.513626 -28.560183
8.4040384 61.822498 -28.628212
8.518714 61.924007 -28.72525
-61.811504 62.174664 -28.608774
8.6287603 62.044949 -28.886141
-9.6266041 62.621006 -28.823477
-61.773956 63.716888 -28.568205
-10.542701 63.840679 -28.618439
8.4676876 63.837509 -28.929008
-10.637587 64.255814 -28.632751
-45.693813 64.944443 -28.886473
-45.465012 65.212662 -28.568869
-10.210763 65.30735 -28.897276
58.577339 65.48436 -28.943207
-45.695282 65.918732 -28.838341
54.922352 65.681633 -28.573011
55.178726 65.621521 -28.873905
56.304855 65.59977 -28.624371
59.618374 65.784599 -28.819801
-45.65406 66.064705 -28.69241
8.3547592 66.394997 -28.837488
54.272743 66.451447 -28.75502
60.158424 66.292488 -28.71508
-45.793934 66.783997 -28.844177
8.3997498 66.550873 -28.741564
54.139557 66.773857 -28.790848
60.362431 66.632889 -28.859905
-61.028469 67.147095 -28.795237
-60.910969 67.236153 -28.887268
53.802601 67.268921 -28.623768
54.016411 67.033401 -28.773937
-60.537266 67.927658 -28.755066
-60.494339 67.833191 -28.906475
8.6568489 67.696404 -28.829586
61.694252 67.909561 -28.57048
-9.6807213 68.112968 -28.7192
8.8499928 68.455887 -28.672699
-60.405209 68.856461 -28.668106
-43.768822 68.955307 -28.880512
8.844347 68.634132 -28.61618
-43.650921 69.079956 -28.8435
-9.6444035 69.409126 -28.731718
62.590023 69.128799 -28.995899
-9.71175 69.753036 -28.546547
-59.596939 70.055702 -28.899269
63.129612 70.430756 -28.867331
-9.1659803 70.605011 -28.906822
53.392654 70.557022 -28.984829
-58.621376 71.473343 -28.589003
53.181137 71.318481 -28.910231
63.251053 71.321617 -28.895004
-9.3450871 71.905182 -28.916628
8.940958 71.977875 -28.615715
63.279404 71.71035 -28.930498
8.8559656 72.173882 -28.637541
-47.376022 72.883835 -28.86882
-46.701767 72.80043 -28.754549
-46.364655 72.697472 -28.736685
-9.2536125 72.656631 -28.929583
-8.5898972 73.385193 -28.885973
6.6182437 73.334404 -28.604895
62.99432 73.234039 -28.981506
63.039604 73.144402 -28.92519
-55.731804 73.738159 -28.784363
-53.066536 73.988678 -28.852468
-49.780624 73.939919 -28.501019
-7.7744579 73.954041 -28.680025
5.7147064 73.867241 -28.755243
-53.622581 74.299561 -28.594133
-53.052933 74.01577 -28.796215
-50.740139 74.06813 -28.672159
-7.9210358 74.311745 -28.51792
62.552883 74.11438 -28.866337
-7.6191373 74.6576 -28.811516
5.9737482 74.785362 -28.752995
52.261669 74.703751 -28.517998
51.96225 75.424126 -28.515881
3.2635822 75.912628 -28.822096
3.5493736 75.896271 -28.724756
51.954975 75.539116 -28.569311
52.056915 75.767365 -28.848785
62.354919 75.990021 -28.542055
0.89219385 76.133141 -28.961952
1.8837727 76.302979 -28.94832
2.01823 76.397247 -28.838205
-3.5181754 76.628937 -28.852251
-3.2129664 76.577522 -28.898153
-2.5943956 76.915848 -28.51091
-2.3389347 76.951134 -28.55287
-0.81460488 76.649239 -28.55673
51.460945 76.811165 -28.752876
61.750004 76.776787 -28.568626
-4.1135788 77.155418 -28.5068
51.176716 77.495354 -28.598698
51.190453 77.532211 -28.716894
61.32016 77.625534 -28.766144
59.778534 79.443481 -28.830708
50.957336 79.729065 -28.833845
50.943779 80.658653 -28.877712
50.77425 81.272881 -28.833767
50.764057 81.610504 -28.919956
50.759544 82.386559 -28.831812
11.253775 82.51815 -28.616865
50.748737 82.75972 -28.760647
10.361154 83.013367 -28.605133
50.536495 83.445313 -28.52552
-10.170679 83.960869 -28.72308
50.616722 83.635956 -28.67012
-10.734726 84.308395 -28.897097
-10.156023 84.012733 -28.754383
-11.089835 84.808067 -28.895895
-9.5149517 84.71312 -28.800436
12.161533 84.758125 -28.649189
49.84956 84.835709 -28.705948
56.450314 84.744064 -28.700418
-11.415024 85.473572 -28.60358
-9.3065166 85.158188 -28.857794
49.697922 85.223557 -28.947903
54.114906 85.288109 -28.751137
-11.427688 85.518166 -28.57004
11.219091 85.992317 -28.741962
11.282283 86.206337 -28.688354
11.639858 86.405121 -28.913887
53.00898 86.260841 -28.779583
13.02171 86.528648 -28.857807
12.216928 87.950317 -28.543486
-9.5113707 88.964523 -28.881592
-9.3621302 88.816635 -28.74696
13.245038 88.903389 -28.940029
50.75869 88.875229 -28.572781
13.269642 89.036736 -28.854822
50.675423 89.098053 -28.919973
13.773974 89.699066 -28.904337
15.628326 90.439209 -28.927355
-15.372969 90.971062 -28.506901
-14.912792 90.544777 -28.538931
-10.642367 90.84671 -28.820646
15.948146 90.742935 -28.586779
14.923642 91.302467 -28.767731
15.046551 91.270966 -28.856983
16.126568 91.227081 -28.971878
-11.508352 91.962044 -28.857132
-11.639037 92.327179 -28.71102
15.816805 92.011826 -28.995468
17.176538 92.295937 -28.642487
-12.239211 92.795776 -28.943316
17.233805 93.113983 -28.986832
-21.190939 93.986305 -28.616144
-12.638809 93.62825 -28.614117
-21.32505 94.075516 -28.684624
18.47246 94.264885 -28.791759
-14.343708 94.91568 -28.920879
18.613628 94.505447 -28.650545
19.156507 94.72364 -28.55677
-14.434599 95.011162 -28.916113
-21.797661 96.364777 -28.92024
-21.093334 96.877197 -28.846344
-20.97883 96.908707 -28.715147
-17.375393 96.789795 -28.709187
-18.702152 97.049332 -28.603832
-2.2662435 52.482178 -28.23032
-48.97208 52.83194 -28.112999
-48.105316 52.775028 -28.080229
-47.947079 52.913326 -28.187456
-2.6159284 52.648537 -28.242992
-2.4166808 52.568192 -28.209824
2.1966343 52.718616 -28.216902
-54.967869 53.39703 -28.293291
-53.149208 53.025146 -28.336117
-52.985329 53.023647 -28.480927
-3.5180554 53.213013 -28.053778
2.9483023 53.225574 -28.140661
3.1841116 53.255661 -28.201649
-56.151516 53.858158 -28.04895
-5.1990013 54.338074 -28.43606
-57.887074 54.929676 -28.326683
-5.0620966 54.538357 -28.107567
-59.548286 55.990929 -28.0144
-58.891941 55.667732 -28.473799
-5.8471909 55.652134 -28.082502
-59.606239 56.094696 -28.127306
-47.80003 56.748699 -28.109421
6.3612227 56.880451 -28.116318
6.4555387 57.083145 -28.187338
6.5153384 57.216133 -28.251701
-46.424374 58.441006 -28.116327
-60.829262 58.535255 -28.277967
7.2087193 58.937523 -28.029617
-61.069305 59.249733 -28.18264
-8.1713409 59.918972 -28.231844
-8.2134781 60.101852 -28.25082
-61.747482 60.53096 -28.429966
-45.816963 60.561317 -28.227768
7.1845665 60.839516 -28.4144
7.638536 61.476006 -28.380447
-61.903366 61.974037 -28.439613
7.8330255 61.767483 -28.143692
8.0982981 61.828377 -28.305473
-45.333607 62.279568 -28.077669
-61.830757 63.750694 -28.424761
-10.939765 63.697006 -28.155193
8.6788387 64.916817 -28.230202
-45.397842 65.09584 -28.476156
55.87244 65.427101 -28.337275
57.458214 65.480865 -28.04108
-61.612705 65.861069 -28.174309
8.8039703 65.910149 -28.259903
54.212124 65.90741 -28.014086
54.917065 65.574287 -28.210375
56.43158 65.583397 -28.428879
56.716175 65.557541 -28.208714
-61.583527 66.061211 -28.00864
-45.550388 66.181007 -28.385422
8.8894749 66.028946 -28.079548
60.083679 66.193924 -28.058275
-10.712402 66.698746 -28.182899
-10.385146 66.800377 -28.383261
60.597813 66.873665 -28.050289
-10.637351 67.219002 -28.084772
60.725021 67.037849 -28.055923
-60.752144 67.985397 -28.005703
8.7093678 67.75473 -28.104961
61.785118 67.976707 -28.356461
-60.730865 68.088402 -28.058083
-43.599815 68.377289 -28.106289
-9.9348097 68.208588 -28.413433
61.980873 68.118729 -28.337606
-60.582214 68.655655 -28.37998
-43.55759 68.552048 -28.24192
-43.420269 68.700981 -28.29822
-60.542534 69.075943 -28.022011
-10.007545 69.868919 -28.08419
-9.8105364 69.717842 -28.402153
-9.7401152 70.769791 -28.068155
-58.721886 71.47995 -28.386675
9.0825481 71.410362 -28.275572
-58.677956 71.638763 -28.339823
9.1350613 71.695404 -28.119209
-58.557041 72.065559 -28.066986
-9.5465927 72.444366 -28.297928
8.9064922 72.262016 -28.338852
-57.836411 72.710114 -28.148729
-47.677593 72.975868 -28.357224
-47.457809 72.964417 -28.363916
-46.783974 72.979523 -28.119144
-9.5439596 72.667961 -28.277182
63.022655 72.658592 -28.12278
-56.726398 73.191971 -28.315546
-56.426388 73.408913 -28.334381
-48.251175 73.353401 -28.210855
6.6389508 73.430496 -28.396765
52.361626 73.358521 -28.260073
-55.736191 73.955879 -28.06163
-51.864796 73.992218 -28.213181
-8.4147902 73.976982 -28.265697
52.267593 73.520981 -28.157986
-55.557228 74.03051 -28.164082
-55.468315 74.092148 -28.051651
-54.896301 74.237473 -28.054337
-53.553123 74.348663 -28.393284
-51.766689 74.024582 -28.215853
-49.815369 74.014618 -28.316261
-8.05721 74.24202 -28.435038
52.121521 74.826172 -28.399841
6.4554024 75.368492 -28.400299
51.918983 75.174637 -28.311092
6.4487114 75.777626 -28.29179
6.5727715 75.799431 -28.222393
62.345592 75.889984 -28.354811
-8.3816357 76.24704 -28.354172
3.7129567 76.074844 -28.418453
5.4694381 76.288025 -28.360388
5.5374289 76.209518 -28.392235
6.3408108 76.068451 -28.212048
62.07439 76.139053 -28.161636
-8.1418867 76.814423 -28.189066
-7.9989028 76.812927 -28.248089
-3.5465057 76.995987 -28.385214
-2.6159525 76.959274 -28.436253
-0.94313478 76.829559 -28.376823
-0.10340893 76.625282 -28.148102
0.077930704 76.691101 -28.045301
